ply
format ascii 1.0
element vertex 1617
property float x
property float y
property float z
property uchar red
property uchar green
property uchar blue
end_header
5.6209 2.3365 0.0984 255 0 0
5.6209 2.3365 0.1287 255 0 0
5.6209 2.3365 0.1589 255 0 0
5.6209 2.3365 0.1892 255 0 0
5.6209 2.3365 0.2194 255 0 0
5.6209 2.3365 0.2497 255 0 0
5.6209 2.3365 0.2799 255 0 0
5.6209 2.3365 0.3102 255 0 0
5.6209 2.3365 0.3404 255 0 0
5.6209 2.3365 0.3707 255 0 0
5.8779 2.3365 -0.5067 255 0 0
5.8779 2.3365 -0.4764 255 0 0
5.8779 2.3365 -0.4462 255 0 0
5.8779 2.3365 -0.4159 255 0 0
5.8779 2.3365 -0.3856 255 0 0
5.8779 2.3365 -0.3554 255 0 0
5.8779 2.3365 -0.3251 255 0 0
5.8779 2.3365 -0.2949 255 0 0
5.8779 2.3365 -0.2646 255 0 0
5.8779 2.3365 -0.2344 255 0 0
5.8779 2.3365 -0.2041 255 0 0
5.8779 2.3365 -0.1739 255 0 0
5.8779 2.3365 -0.1436 255 0 0
5.8779 2.3365 -0.1134 255 0 0
5.8779 2.3365 -0.0831 255 0 0
5.8779 2.3365 -0.0529 255 0 0
5.8779 2.3365 -0.0226 255 0 0
5.8779 2.3365 0.0077 255 0 0
5.8779 2.3365 0.0379 255 0 0
5.8779 2.3365 0.0682 255 0 0
5.8779 2.3365 0.0984 255 0 0
5.8779 2.3365 0.1287 255 0 0
5.8779 2.3365 0.1589 255 0 0
5.8779 2.3365 0.1892 255 0 0
5.8779 2.3365 0.2194 255 0 0
5.8779 2.3365 0.2497 255 0 0
5.8779 2.3365 0.2799 255 0 0
5.8779 2.3365 0.3102 255 0 0
5.8779 2.3365 0.3404 255 0 0
5.8779 2.3365 0.3707 255 0 0
5.8779 2.6198 -0.5067 255 0 0
5.8779 2.6198 -0.4764 255 0 0
5.8779 2.6198 -0.4462 255 0 0
5.8779 2.6198 -0.4159 255 0 0
5.8779 2.6198 -0.3856 255 0 0
5.8779 2.6198 -0.3554 255 0 0
5.8779 2.6198 -0.3251 255 0 0
5.8779 2.6198 -0.2949 255 0 0
5.8779 2.6198 -0.2646 255 0 0
5.8779 2.6198 -0.2344 255 0 0
5.8779 2.6198 -0.2041 255 0 0
5.8779 2.6198 -0.1739 255 0 0
5.8779 2.6198 -0.1436 255 0 0
5.8779 2.6198 -0.1134 255 0 0
5.8779 2.6198 -0.0831 255 0 0
5.8779 2.6198 -0.0529 255 0 0
5.8779 2.6198 -0.0226 255 0 0
5.8779 2.6198 0.0077 255 0 0
5.8779 2.6198 0.0379 255 0 0
5.8779 2.6198 0.0682 255 0 0
5.8779 2.6198 0.0984 255 0 0
5.8779 2.6198 0.1287 255 0 0
5.8779 2.6198 0.1589 255 0 0
5.8779 2.6198 0.1892 255 0 0
5.8779 2.6198 0.2194 255 0 0
5.8779 2.6198 0.2497 255 0 0
5.8779 2.6198 0.2799 255 0 0
5.8779 2.6198 0.3102 255 0 0
5.8779 2.6198 0.3404 255 0 0
5.8779 2.6198 0.3707 255 0 0
5.6209 2.6198 -0.5067 255 0 0
5.6209 2.6198 -0.4764 255 0 0
5.6209 2.6198 -0.4462 255 0 0
5.6209 2.6198 -0.4159 255 0 0
5.6209 2.6198 -0.3856 255 0 0
5.6209 2.6198 -0.3554 255 0 0
5.6209 2.6198 -0.3251 255 0 0
5.6209 2.6198 -0.2949 255 0 0
5.6209 2.6198 -0.2646 255 0 0
5.6209 2.6198 -0.2344 255 0 0
5.6209 2.6198 -0.2041 255 0 0
5.6209 2.6198 -0.1739 255 0 0
5.6209 2.6198 -0.1436 255 0 0
5.6209 2.6198 -0.1134 255 0 0
5.6209 2.6198 -0.0831 255 0 0
5.6209 2.6198 -0.0529 255 0 0
5.6209 2.6198 -0.0226 255 0 0
5.6209 2.6198 0.0077 255 0 0
5.6209 2.6198 0.0379 255 0 0
5.6209 2.6198 0.0682 255 0 0
5.6209 2.6198 0.0984 255 0 0
5.6209 2.6198 0.1287 255 0 0
5.6209 2.6198 0.1589 255 0 0
5.6209 2.6198 0.1892 255 0 0
5.6209 2.6198 0.2194 255 0 0
5.6209 2.6198 0.2497 255 0 0
5.6209 2.6198 0.2799 255 0 0
5.6209 2.6198 0.3102 255 0 0
5.6209 2.6198 0.3404 255 0 0
5.6209 2.6198 0.3707 255 0 0
7.6209 -9.4198 1.3872 255 0 0
7.6233 -9.4198 1.3872 255 0 0
7.6257 -9.4198 1.3872 255 0 0
7.6281 -9.4198 1.3872 255 0 0
7.6305 -9.4198 1.3872 255 0 0
7.6329 -9.4198 1.3872 255 0 0
7.6354 -9.4198 1.3872 255 0 0
7.6378 -9.4198 1.3872 255 0 0
7.6402 -9.4198 1.3872 255 0 0
7.6426 -9.4198 1.3872 255 0 0
7.6450 -9.4198 1.3872 255 0 0
7.6474 -9.4198 1.3872 255 0 0
7.6498 -9.4198 1.3872 255 0 0
7.6522 -9.4198 1.3872 255 0 0
7.6547 -9.4198 1.3872 255 0 0
7.6571 -9.4198 1.3872 255 0 0
7.6595 -9.4198 1.3872 255 0 0
7.6619 -9.4198 1.3872 255 0 0
7.6643 -9.4198 1.3872 255 0 0
7.6667 -9.4198 1.3872 255 0 0
7.6691 -9.4198 1.3872 255 0 0
7.6715 -9.4198 1.3872 255 0 0
7.6740 -9.4198 1.3872 255 0 0
7.6764 -9.4198 1.3872 255 0 0
7.6788 -9.4198 1.3872 255 0 0
7.6812 -9.4198 1.3872 255 0 0
7.6836 -9.4198 1.3872 255 0 0
7.6860 -9.4198 1.3872 255 0 0
7.6884 -9.4198 1.3872 255 0 0
7.6908 -9.4198 1.3872 255 0 0
7.6908 -9.4198 1.3872 255 0 0
7.6908 -9.4198 1.3872 255 0 0
7.6908 -9.4197 1.3872 255 0 0
7.6908 -9.4197 1.3872 255 0 0
7.6908 -9.4197 1.3872 255 0 0
7.6908 -9.4197 1.3872 255 0 0
7.6908 -9.4197 1.3872 255 0 0
7.6908 -9.4196 1.3872 255 0 0
7.6908 -9.4196 1.3872 255 0 0
7.6908 -9.4196 1.3872 255 0 0
7.6908 -9.4196 1.3872 255 0 0
7.6908 -9.4196 1.3872 255 0 0
7.6908 -9.4195 1.3872 255 0 0
7.6908 -9.4195 1.3872 255 0 0
7.6908 -9.4195 1.3872 255 0 0
7.6908 -9.4195 1.3872 255 0 0
7.6908 -9.4194 1.3872 255 0 0
7.6908 -9.4194 1.3872 255 0 0
7.6908 -9.4194 1.3872 255 0 0
7.6908 -9.4194 1.3872 255 0 0
7.6908 -9.4194 1.3872 255 0 0
7.6908 -9.4193 1.3872 255 0 0
7.6908 -9.4193 1.3872 255 0 0
7.6908 -9.4193 1.3872 255 0 0
7.6908 -9.4193 1.3872 255 0 0
7.6908 -9.4193 1.3872 255 0 0
7.6908 -9.4192 1.3872 255 0 0
7.6908 -9.4192 1.3872 255 0 0
7.6908 -9.4192 1.3872 255 0 0
7.6908 -9.4192 1.3872 255 0 0
7.6908 -9.4192 1.3872 255 0 0
7.6884 -9.4192 1.3872 255 0 0
7.6860 -9.4192 1.3872 255 0 0
7.6836 -9.4192 1.3872 255 0 0
7.6812 -9.4192 1.3872 255 0 0
7.6788 -9.4192 1.3872 255 0 0
7.6764 -9.4192 1.3872 255 0 0
7.6740 -9.4192 1.3872 255 0 0
7.6715 -9.4192 1.3872 255 0 0
7.6691 -9.4192 1.3872 255 0 0
7.6667 -9.4192 1.3872 255 0 0
7.6643 -9.4192 1.3872 255 0 0
7.6619 -9.4192 1.3872 255 0 0
7.6595 -9.4192 1.3872 255 0 0
7.6571 -9.4192 1.3872 255 0 0
7.6547 -9.4192 1.3872 255 0 0
7.6522 -9.4192 1.3872 255 0 0
7.6498 -9.4192 1.3872 255 0 0
7.6474 -9.4192 1.3872 255 0 0
7.6450 -9.4192 1.3872 255 0 0
7.6426 -9.4192 1.3872 255 0 0
7.6402 -9.4192 1.3872 255 0 0
7.6378 -9.4192 1.3872 255 0 0
7.6354 -9.4192 1.3872 255 0 0
7.6329 -9.4192 1.3872 255 0 0
7.6305 -9.4192 1.3872 255 0 0
7.6281 -9.4192 1.3872 255 0 0
7.6257 -9.4192 1.3872 255 0 0
7.6233 -9.4192 1.3872 255 0 0
7.6209 -9.4192 1.3872 255 0 0
7.6209 -9.4192 1.3872 255 0 0
7.6209 -9.4192 1.3872 255 0 0
7.6209 -9.4192 1.3872 255 0 0
7.6209 -9.4192 1.3872 255 0 0
7.6209 -9.4193 1.3872 255 0 0
7.6209 -9.4193 1.3872 255 0 0
7.6209 -9.4193 1.3872 255 0 0
7.6209 -9.4193 1.3872 255 0 0
7.6209 -9.4193 1.3872 255 0 0
7.6209 -9.4194 1.3872 255 0 0
7.6209 -9.4194 1.3872 255 0 0
7.6209 -9.4194 1.3872 255 0 0
7.6209 -9.4194 1.3872 255 0 0
7.6209 -9.4194 1.3872 255 0 0
7.6209 -9.4195 1.3872 255 0 0
7.6209 -9.4195 1.3872 255 0 0
7.6209 -9.4195 1.3872 255 0 0
7.6209 -9.4195 1.3872 255 0 0
7.6209 -9.4196 1.3872 255 0 0
7.6209 -9.4196 1.3872 255 0 0
7.6209 -9.4196 1.3872 255 0 0
7.6209 -9.4196 1.3872 255 0 0
7.6209 -9.4196 1.3872 255 0 0
7.6209 -9.4197 1.3872 255 0 0
7.6209 -9.4197 1.3872 255 0 0
7.6209 -9.4197 1.3872 255 0 0
7.6209 -9.4197 1.3872 255 0 0
7.6209 -9.4197 1.3872 255 0 0
7.6209 -9.4198 1.3872 255 0 0
7.6209 -9.4198 1.3872 255 0 0
7.6209 -9.4198 1.4269 255 0 0
7.6233 -9.4198 1.4269 255 0 0
7.6257 -9.4198 1.4269 255 0 0
7.6281 -9.4198 1.4269 255 0 0
7.6305 -9.4198 1.4269 255 0 0
7.6329 -9.4198 1.4269 255 0 0
7.6354 -9.4198 1.4269 255 0 0
7.6378 -9.4198 1.4269 255 0 0
7.6402 -9.4198 1.4269 255 0 0
7.6426 -9.4198 1.4269 255 0 0
7.6450 -9.4198 1.4269 255 0 0
7.6474 -9.4198 1.4269 255 0 0
7.6498 -9.4198 1.4269 255 0 0
7.6522 -9.4198 1.4269 255 0 0
7.6547 -9.4198 1.4269 255 0 0
7.6571 -9.4198 1.4269 255 0 0
7.6595 -9.4198 1.4269 255 0 0
7.6619 -9.4198 1.4269 255 0 0
7.6643 -9.4198 1.4269 255 0 0
7.6667 -9.4198 1.4269 255 0 0
7.6691 -9.4198 1.4269 255 0 0
7.6715 -9.4198 1.4269 255 0 0
7.6740 -9.4198 1.4269 255 0 0
7.6764 -9.4198 1.4269 255 0 0
7.6788 -9.4198 1.4269 255 0 0
7.6812 -9.4198 1.4269 255 0 0
7.6836 -9.4198 1.4269 255 0 0
7.6860 -9.4198 1.4269 255 0 0
7.6884 -9.4198 1.4269 255 0 0
7.6908 -9.4198 1.4269 255 0 0
7.6908 -9.4198 1.4269 255 0 0
7.6908 -9.4198 1.4269 255 0 0
7.6908 -9.4197 1.4269 255 0 0
7.6908 -9.4197 1.4269 255 0 0
7.6908 -9.4197 1.4269 255 0 0
7.6908 -9.4197 1.4269 255 0 0
7.6908 -9.4197 1.4269 255 0 0
7.6908 -9.4196 1.4269 255 0 0
7.6908 -9.4196 1.4269 255 0 0
7.6908 -9.4196 1.4269 255 0 0
7.6908 -9.4196 1.4269 255 0 0
7.6908 -9.4196 1.4269 255 0 0
7.6908 -9.4195 1.4269 255 0 0
7.6908 -9.4195 1.4269 255 0 0
7.6908 -9.4195 1.4269 255 0 0
7.6908 -9.4195 1.4269 255 0 0
7.6908 -9.4194 1.4269 255 0 0
7.6908 -9.4194 1.4269 255 0 0
7.6908 -9.4194 1.4269 255 0 0
7.6908 -9.4194 1.4269 255 0 0
7.6908 -9.4194 1.4269 255 0 0
7.6908 -9.4193 1.4269 255 0 0
7.6908 -9.4193 1.4269 255 0 0
7.6908 -9.4193 1.4269 255 0 0
7.6908 -9.4193 1.4269 255 0 0
7.6908 -9.4193 1.4269 255 0 0
7.6908 -9.4192 1.4269 255 0 0
7.6908 -9.4192 1.4269 255 0 0
7.6908 -9.4192 1.4269 255 0 0
7.6908 -9.4192 1.4269 255 0 0
7.6908 -9.4192 1.4269 255 0 0
7.6884 -9.4192 1.4269 255 0 0
7.6860 -9.4192 1.4269 255 0 0
7.6836 -9.4192 1.4269 255 0 0
7.6812 -9.4192 1.4269 255 0 0
7.6788 -9.4192 1.4269 255 0 0
7.6764 -9.4192 1.4269 255 0 0
7.6740 -9.4192 1.4269 255 0 0
7.6715 -9.4192 1.4269 255 0 0
7.6691 -9.4192 1.4269 255 0 0
7.6667 -9.4192 1.4269 255 0 0
7.6643 -9.4192 1.4269 255 0 0
7.6619 -9.4192 1.4269 255 0 0
7.6595 -9.4192 1.4269 255 0 0
7.6571 -9.4192 1.4269 255 0 0
7.6547 -9.4192 1.4269 255 0 0
7.6522 -9.4192 1.4269 255 0 0
7.6498 -9.4192 1.4269 255 0 0
7.6474 -9.4192 1.4269 255 0 0
7.6450 -9.4192 1.4269 255 0 0
7.6426 -9.4192 1.4269 255 0 0
7.6402 -9.4192 1.4269 255 0 0
7.6378 -9.4192 1.4269 255 0 0
7.6354 -9.4192 1.4269 255 0 0
7.6329 -9.4192 1.4269 255 0 0
7.6305 -9.4192 1.4269 255 0 0
7.6281 -9.4192 1.4269 255 0 0
7.6257 -9.4192 1.4269 255 0 0
7.6233 -9.4192 1.4269 255 0 0
7.6209 -9.4192 1.4269 255 0 0
7.6209 -9.4192 1.4269 255 0 0
7.6209 -9.4192 1.4269 255 0 0
7.6209 -9.4192 1.4269 255 0 0
7.6209 -9.4192 1.4269 255 0 0
7.6209 -9.4193 1.4269 255 0 0
7.6209 -9.4193 1.4269 255 0 0
7.6209 -9.4193 1.4269 255 0 0
7.6209 -9.4193 1.4269 255 0 0
7.6209 -9.4193 1.4269 255 0 0
7.6209 -9.4194 1.4269 255 0 0
7.6209 -9.4194 1.4269 255 0 0
7.6209 -9.4194 1.4269 255 0 0
7.6209 -9.4194 1.4269 255 0 0
7.6209 -9.4194 1.4269 255 0 0
7.6209 -9.4195 1.4269 255 0 0
7.6209 -9.4195 1.4269 255 0 0
7.6209 -9.4195 1.4269 255 0 0
7.6209 -9.4195 1.4269 255 0 0
7.6209 -9.4196 1.4269 255 0 0
7.6209 -9.4196 1.4269 255 0 0
7.6209 -9.4196 1.4269 255 0 0
7.6209 -9.4196 1.4269 255 0 0
7.6209 -9.4196 1.4269 255 0 0
7.6209 -9.4197 1.4269 255 0 0
7.6209 -9.4197 1.4269 255 0 0
7.6209 -9.4197 1.4269 255 0 0
7.6209 -9.4197 1.4269 255 0 0
7.6209 -9.4197 1.4269 255 0 0
7.6209 -9.4198 1.4269 255 0 0
7.6209 -9.4198 1.4269 255 0 0
7.6209 -9.4198 1.3872 255 0 0
7.6209 -9.4198 1.3886 255 0 0
7.6209 -9.4198 1.3900 255 0 0
7.6209 -9.4198 1.3913 255 0 0
7.6209 -9.4198 1.3927 255 0 0
7.6209 -9.4198 1.3941 255 0 0
7.6209 -9.4198 1.3954 255 0 0
7.6209 -9.4198 1.3968 255 0 0
7.6209 -9.4198 1.3982 255 0 0
7.6209 -9.4198 1.3995 255 0 0
7.6209 -9.4198 1.4009 255 0 0
7.6209 -9.4198 1.4023 255 0 0
7.6209 -9.4198 1.4036 255 0 0
7.6209 -9.4198 1.4050 255 0 0
7.6209 -9.4198 1.4064 255 0 0
7.6209 -9.4198 1.4077 255 0 0
7.6209 -9.4198 1.4091 255 0 0
7.6209 -9.4198 1.4105 255 0 0
7.6209 -9.4198 1.4118 255 0 0
7.6209 -9.4198 1.4132 255 0 0
7.6209 -9.4198 1.4146 255 0 0
7.6209 -9.4198 1.4159 255 0 0
7.6209 -9.4198 1.4173 255 0 0
7.6209 -9.4198 1.4187 255 0 0
7.6209 -9.4198 1.4200 255 0 0
7.6209 -9.4198 1.4214 255 0 0
7.6209 -9.4198 1.4228 255 0 0
7.6209 -9.4198 1.4241 255 0 0
7.6209 -9.4198 1.4255 255 0 0
7.6209 -9.4198 1.4269 255 0 0
7.6908 -9.4198 1.3872 255 0 0
7.6908 -9.4198 1.3886 255 0 0
7.6908 -9.4198 1.3900 255 0 0
7.6908 -9.4198 1.3913 255 0 0
7.6908 -9.4198 1.3927 255 0 0
7.6908 -9.4198 1.3941 255 0 0
7.6908 -9.4198 1.3954 255 0 0
7.6908 -9.4198 1.3968 255 0 0
7.6908 -9.4198 1.3982 255 0 0
7.6908 -9.4198 1.3995 255 0 0
7.6908 -9.4198 1.4009 255 0 0
7.6908 -9.4198 1.4023 255 0 0
7.6908 -9.4198 1.4036 255 0 0
7.6908 -9.4198 1.4050 255 0 0
7.6908 -9.4198 1.4064 255 0 0
7.6908 -9.4198 1.4077 255 0 0
7.6908 -9.4198 1.4091 255 0 0
7.6908 -9.4198 1.4105 255 0 0
7.6908 -9.4198 1.4118 255 0 0
7.6908 -9.4198 1.4132 255 0 0
7.6908 -9.4198 1.4146 255 0 0
7.6908 -9.4198 1.4159 255 0 0
7.6908 -9.4198 1.4173 255 0 0
7.6908 -9.4198 1.4187 255 0 0
7.6908 -9.4198 1.4200 255 0 0
7.6908 -9.4198 1.4214 255 0 0
7.6908 -9.4198 1.4228 255 0 0
7.6908 -9.4198 1.4241 255 0 0
7.6908 -9.4198 1.4255 255 0 0
7.6908 -9.4198 1.4269 255 0 0
7.6908 -9.4192 1.3872 255 0 0
7.6908 -9.4192 1.3886 255 0 0
7.6908 -9.4192 1.3900 255 0 0
7.6908 -9.4192 1.3913 255 0 0
7.6908 -9.4192 1.3927 255 0 0
7.6908 -9.4192 1.3941 255 0 0
7.6908 -9.4192 1.3954 255 0 0
7.6908 -9.4192 1.3968 255 0 0
7.6908 -9.4192 1.3982 255 0 0
7.6908 -9.4192 1.3995 255 0 0
7.6908 -9.4192 1.4009 255 0 0
7.6908 -9.4192 1.4023 255 0 0
7.6908 -9.4192 1.4036 255 0 0
7.6908 -9.4192 1.4050 255 0 0
7.6908 -9.4192 1.4064 255 0 0
7.6908 -9.4192 1.4077 255 0 0
7.6908 -9.4192 1.4091 255 0 0
7.6908 -9.4192 1.4105 255 0 0
7.6908 -9.4192 1.4118 255 0 0
7.6908 -9.4192 1.4132 255 0 0
7.6908 -9.4192 1.4146 255 0 0
7.6908 -9.4192 1.4159 255 0 0
7.6908 -9.4192 1.4173 255 0 0
7.6908 -9.4192 1.4187 255 0 0
7.6908 -9.4192 1.4200 255 0 0
7.6908 -9.4192 1.4214 255 0 0
7.6908 -9.4192 1.4228 255 0 0
7.6908 -9.4192 1.4241 255 0 0
7.6908 -9.4192 1.4255 255 0 0
7.6908 -9.4192 1.4269 255 0 0
7.6209 -9.4192 1.3872 255 0 0
7.6209 -9.4192 1.3886 255 0 0
7.6209 -9.4192 1.3900 255 0 0
7.6209 -9.4192 1.3913 255 0 0
7.6209 -9.4192 1.3927 255 0 0
7.6209 -9.4192 1.3941 255 0 0
7.6209 -9.4192 1.3954 255 0 0
7.6209 -9.4192 1.3968 255 0 0
7.6209 -9.4192 1.3982 255 0 0
7.6209 -9.4192 1.3995 255 0 0
7.6209 -9.4192 1.4009 255 0 0
7.6209 -9.4192 1.4023 255 0 0
7.6209 -9.4192 1.4036 255 0 0
7.6209 -9.4192 1.4050 255 0 0
7.6209 -9.4192 1.4064 255 0 0
7.6209 -9.4192 1.4077 255 0 0
7.6209 -9.4192 1.4091 255 0 0
7.6209 -9.4192 1.4105 255 0 0
7.6209 -9.4192 1.4118 255 0 0
7.6209 -9.4192 1.4132 255 0 0
7.6209 -9.4192 1.4146 255 0 0
7.6209 -9.4192 1.4159 255 0 0
7.6209 -9.4192 1.4173 255 0 0
7.6209 -9.4192 1.4187 255 0 0
7.6209 -9.4192 1.4200 255 0 0
7.6209 -9.4192 1.4214 255 0 0
7.6209 -9.4192 1.4228 255 0 0
7.6209 -9.4192 1.4241 255 0 0
7.6209 -9.4192 1.4255 255 0 0
7.6209 -9.4192 1.4269 255 0 0
4.4090 3.8492 -0.1502 255 0 0
4.4144 3.8492 -0.1502 255 0 0
4.4197 3.8492 -0.1502 255 0 0
4.4251 3.8492 -0.1502 255 0 0
4.4305 3.8492 -0.1502 255 0 0
4.4359 3.8492 -0.1502 255 0 0
4.4412 3.8492 -0.1502 255 0 0
4.4466 3.8492 -0.1502 255 0 0
4.4520 3.8492 -0.1502 255 0 0
4.4574 3.8492 -0.1502 255 0 0
4.4627 3.8492 -0.1502 255 0 0
4.4681 3.8492 -0.1502 255 0 0
4.4735 3.8492 -0.1502 255 0 0
4.4789 3.8492 -0.1502 255 0 0
4.4842 3.8492 -0.1502 255 0 0
4.4896 3.8492 -0.1502 255 0 0
4.4950 3.8492 -0.1502 255 0 0
4.5004 3.8492 -0.1502 255 0 0
4.5057 3.8492 -0.1502 255 0 0
4.5111 3.8492 -0.1502 255 0 0
4.5165 3.8492 -0.1502 255 0 0
4.5219 3.8492 -0.1502 255 0 0
4.5272 3.8492 -0.1502 255 0 0
4.5326 3.8492 -0.1502 255 0 0
4.5380 3.8492 -0.1502 255 0 0
4.5434 3.8492 -0.1502 255 0 0
4.5487 3.8492 -0.1502 255 0 0
4.5541 3.8492 -0.1502 255 0 0
4.5595 3.8492 -0.1502 255 0 0
4.5649 3.8492 -0.1502 255 0 0
4.5649 3.8492 -0.1502 255 0 0
4.5649 3.8534 -0.1502 255 0 0
4.5649 3.8575 -0.1502 255 0 0
4.5649 3.8616 -0.1502 255 0 0
4.5649 3.8657 -0.1502 255 0 0
4.5649 3.8698 -0.1502 255 0 0
4.5649 3.8739 -0.1502 255 0 0
4.5649 3.8780 -0.1502 255 0 0
4.5649 3.8821 -0.1502 255 0 0
4.5649 3.8863 -0.1502 255 0 0
4.5649 3.8904 -0.1502 255 0 0
4.5649 3.8945 -0.1502 255 0 0
4.5649 3.8986 -0.1502 255 0 0
4.5649 3.9027 -0.1502 255 0 0
4.5649 3.9068 -0.1502 255 0 0
4.5649 3.9109 -0.1502 255 0 0
4.5649 3.9150 -0.1502 255 0 0
4.5649 3.9192 -0.1502 255 0 0
4.5649 3.9233 -0.1502 255 0 0
4.5649 3.9274 -0.1502 255 0 0
4.5649 3.9315 -0.1502 255 0 0
4.5649 3.9356 -0.1502 255 0 0
4.5649 3.9397 -0.1502 255 0 0
4.5649 3.9438 -0.1502 255 0 0
4.5649 3.9479 -0.1502 255 0 0
4.5649 3.9520 -0.1502 255 0 0
4.5649 3.9562 -0.1502 255 0 0
4.5649 3.9603 -0.1502 255 0 0
4.5649 3.9644 -0.1502 255 0 0
4.5649 3.9685 -0.1502 255 0 0
4.5649 3.9685 -0.1502 255 0 0
4.5595 3.9685 -0.1502 255 0 0
4.5541 3.9685 -0.1502 255 0 0
4.5487 3.9685 -0.1502 255 0 0
4.5434 3.9685 -0.1502 255 0 0
4.5380 3.9685 -0.1502 255 0 0
4.5326 3.9685 -0.1502 255 0 0
4.5272 3.9685 -0.1502 255 0 0
4.5219 3.9685 -0.1502 255 0 0
4.5165 3.9685 -0.1502 255 0 0
4.5111 3.9685 -0.1502 255 0 0
4.5057 3.9685 -0.1502 255 0 0
4.5004 3.9685 -0.1502 255 0 0
4.4950 3.9685 -0.1502 255 0 0
4.4896 3.9685 -0.1502 255 0 0
4.4842 3.9685 -0.1502 255 0 0
4.4789 3.9685 -0.1502 255 0 0
4.4735 3.9685 -0.1502 255 0 0
4.4681 3.9685 -0.1502 255 0 0
4.4627 3.9685 -0.1502 255 0 0
4.4574 3.9685 -0.1502 255 0 0
4.4520 3.9685 -0.1502 255 0 0
4.4466 3.9685 -0.1502 255 0 0
4.4412 3.9685 -0.1502 255 0 0
4.4359 3.9685 -0.1502 255 0 0
4.4305 3.9685 -0.1502 255 0 0
4.4251 3.9685 -0.1502 255 0 0
4.4197 3.9685 -0.1502 255 0 0
4.4144 3.9685 -0.1502 255 0 0
4.4090 3.9685 -0.1502 255 0 0
4.4090 3.9685 -0.1502 255 0 0
4.4090 3.9644 -0.1502 255 0 0
4.4090 3.9603 -0.1502 255 0 0
4.4090 3.9562 -0.1502 255 0 0
4.4090 3.9520 -0.1502 255 0 0
4.4090 3.9479 -0.1502 255 0 0
4.4090 3.9438 -0.1502 255 0 0
4.4090 3.9397 -0.1502 255 0 0
4.4090 3.9356 -0.1502 255 0 0
4.4090 3.9315 -0.1502 255 0 0
4.4090 3.9274 -0.1502 255 0 0
4.4090 3.9233 -0.1502 255 0 0
4.4090 3.9192 -0.1502 255 0 0
4.4090 3.9150 -0.1502 255 0 0
4.4090 3.9109 -0.1502 255 0 0
4.4090 3.9068 -0.1502 255 0 0
4.4090 3.9027 -0.1502 255 0 0
4.4090 3.8986 -0.1502 255 0 0
4.4090 3.8945 -0.1502 255 0 0
4.4090 3.8904 -0.1502 255 0 0
4.4090 3.8863 -0.1502 255 0 0
4.4090 3.8821 -0.1502 255 0 0
4.4090 3.8780 -0.1502 255 0 0
4.4090 3.8739 -0.1502 255 0 0
4.4090 3.8698 -0.1502 255 0 0
4.4090 3.8657 -0.1502 255 0 0
4.4090 3.8616 -0.1502 255 0 0
4.4090 3.8575 -0.1502 255 0 0
4.4090 3.8534 -0.1502 255 0 0
4.4090 3.8492 -0.1502 255 0 0
4.4090 3.8492 0.3822 255 0 0
4.4144 3.8492 0.3822 255 0 0
4.4197 3.8492 0.3822 255 0 0
4.4251 3.8492 0.3822 255 0 0
4.4305 3.8492 0.3822 255 0 0
4.4359 3.8492 0.3822 255 0 0
4.4412 3.8492 0.3822 255 0 0
4.4466 3.8492 0.3822 255 0 0
4.4520 3.8492 0.3822 255 0 0
4.4574 3.8492 0.3822 255 0 0
4.4627 3.8492 0.3822 255 0 0
4.4681 3.8492 0.3822 255 0 0
4.4735 3.8492 0.3822 255 0 0
4.4789 3.8492 0.3822 255 0 0
4.4842 3.8492 0.3822 255 0 0
4.4896 3.8492 0.3822 255 0 0
4.4950 3.8492 0.3822 255 0 0
4.5004 3.8492 0.3822 255 0 0
4.5057 3.8492 0.3822 255 0 0
4.5111 3.8492 0.3822 255 0 0
4.5165 3.8492 0.3822 255 0 0
4.5219 3.8492 0.3822 255 0 0
4.5272 3.8492 0.3822 255 0 0
4.5326 3.8492 0.3822 255 0 0
4.5380 3.8492 0.3822 255 0 0
4.5434 3.8492 0.3822 255 0 0
4.5487 3.8492 0.3822 255 0 0
4.5541 3.8492 0.3822 255 0 0
4.5595 3.8492 0.3822 255 0 0
4.5649 3.8492 0.3822 255 0 0
4.5649 3.8492 0.3822 255 0 0
4.5649 3.8534 0.3822 255 0 0
4.5649 3.8575 0.3822 255 0 0
4.5649 3.8616 0.3822 255 0 0
4.5649 3.8657 0.3822 255 0 0
4.5649 3.8698 0.3822 255 0 0
4.5649 3.8739 0.3822 255 0 0
4.5649 3.8780 0.3822 255 0 0
4.5649 3.8821 0.3822 255 0 0
4.5649 3.8863 0.3822 255 0 0
4.5649 3.8904 0.3822 255 0 0
4.5649 3.8945 0.3822 255 0 0
4.5649 3.8986 0.3822 255 0 0
4.5649 3.9027 0.3822 255 0 0
4.5649 3.9068 0.3822 255 0 0
4.5649 3.9109 0.3822 255 0 0
4.5649 3.9150 0.3822 255 0 0
4.5649 3.9192 0.3822 255 0 0
4.5649 3.9233 0.3822 255 0 0
4.5649 3.9274 0.3822 255 0 0
4.5649 3.9315 0.3822 255 0 0
4.5649 3.9356 0.3822 255 0 0
4.5649 3.9397 0.3822 255 0 0
4.5649 3.9438 0.3822 255 0 0
4.5649 3.9479 0.3822 255 0 0
4.5649 3.9520 0.3822 255 0 0
4.5649 3.9562 0.3822 255 0 0
4.5649 3.9603 0.3822 255 0 0
4.5649 3.9644 0.3822 255 0 0
4.5649 3.9685 0.3822 255 0 0
4.5649 3.9685 0.3822 255 0 0
4.5595 3.9685 0.3822 255 0 0
4.5541 3.9685 0.3822 255 0 0
4.5487 3.9685 0.3822 255 0 0
4.5434 3.9685 0.3822 255 0 0
4.5380 3.9685 0.3822 255 0 0
4.5326 3.9685 0.3822 255 0 0
4.5272 3.9685 0.3822 255 0 0
4.5219 3.9685 0.3822 255 0 0
4.5165 3.9685 0.3822 255 0 0
4.5111 3.9685 0.3822 255 0 0
4.5057 3.9685 0.3822 255 0 0
4.5004 3.9685 0.3822 255 0 0
4.4950 3.9685 0.3822 255 0 0
4.4896 3.9685 0.3822 255 0 0
4.4842 3.9685 0.3822 255 0 0
4.4789 3.9685 0.3822 255 0 0
4.4735 3.9685 0.3822 255 0 0
4.4681 3.9685 0.3822 255 0 0
4.4627 3.9685 0.3822 255 0 0
4.4574 3.9685 0.3822 255 0 0
4.4520 3.9685 0.3822 255 0 0
4.4466 3.9685 0.3822 255 0 0
4.4412 3.9685 0.3822 255 0 0
4.4359 3.9685 0.3822 255 0 0
4.4305 3.9685 0.3822 255 0 0
4.4251 3.9685 0.3822 255 0 0
4.4197 3.9685 0.3822 255 0 0
4.4144 3.9685 0.3822 255 0 0
4.4090 3.9685 0.3822 255 0 0
4.4090 3.9685 0.3822 255 0 0
4.4090 3.9644 0.3822 255 0 0
4.4090 3.9603 0.3822 255 0 0
4.4090 3.9562 0.3822 255 0 0
4.4090 3.9520 0.3822 255 0 0
4.4090 3.9479 0.3822 255 0 0
4.4090 3.9438 0.3822 255 0 0
4.4090 3.9397 0.3822 255 0 0
4.4090 3.9356 0.3822 255 0 0
4.4090 3.9315 0.3822 255 0 0
4.4090 3.9274 0.3822 255 0 0
4.4090 3.9233 0.3822 255 0 0
4.4090 3.9192 0.3822 255 0 0
4.4090 3.9150 0.3822 255 0 0
4.4090 3.9109 0.3822 255 0 0
4.4090 3.9068 0.3822 255 0 0
4.4090 3.9027 0.3822 255 0 0
4.4090 3.8986 0.3822 255 0 0
4.4090 3.8945 0.3822 255 0 0
4.4090 3.8904 0.3822 255 0 0
4.4090 3.8863 0.3822 255 0 0
4.4090 3.8821 0.3822 255 0 0
4.4090 3.8780 0.3822 255 0 0
4.4090 3.8739 0.3822 255 0 0
4.4090 3.8698 0.3822 255 0 0
4.4090 3.8657 0.3822 255 0 0
4.4090 3.8616 0.3822 255 0 0
4.4090 3.8575 0.3822 255 0 0
4.4090 3.8534 0.3822 255 0 0
4.4090 3.8492 0.3822 255 0 0
4.4090 3.8492 -0.1502 255 0 0
4.4090 3.8492 -0.1318 255 0 0
4.4090 3.8492 -0.1135 255 0 0
4.4090 3.8492 -0.0951 255 0 0
4.4090 3.8492 -0.0768 255 0 0
4.4090 3.8492 -0.0584 255 0 0
4.4090 3.8492 -0.0400 255 0 0
4.4090 3.8492 -0.0217 255 0 0
4.4090 3.8492 -0.0033 255 0 0
4.4090 3.8492 0.0150 255 0 0
4.4090 3.8492 0.0334 255 0 0
4.4090 3.8492 0.0518 255 0 0
4.4090 3.8492 0.0701 255 0 0
4.4090 3.8492 0.0885 255 0 0
4.4090 3.8492 0.1068 255 0 0
4.4090 3.8492 0.1252 255 0 0
4.4090 3.8492 0.1436 255 0 0
4.4090 3.8492 0.1619 255 0 0
4.4090 3.8492 0.1803 255 0 0
4.4090 3.8492 0.1986 255 0 0
4.4090 3.8492 0.2170 255 0 0
4.4090 3.8492 0.2354 255 0 0
4.4090 3.8492 0.2537 255 0 0
4.4090 3.8492 0.2721 255 0 0
4.4090 3.8492 0.2904 255 0 0
4.4090 3.8492 0.3088 255 0 0
4.4090 3.8492 0.3272 255 0 0
4.4090 3.8492 0.3455 255 0 0
4.4090 3.8492 0.3639 255 0 0
4.4090 3.8492 0.3822 255 0 0
4.5649 3.8492 -0.1502 255 0 0
4.5649 3.8492 -0.1318 255 0 0
4.5649 3.8492 -0.1135 255 0 0
4.5649 3.8492 -0.0951 255 0 0
4.5649 3.8492 -0.0768 255 0 0
4.5649 3.8492 -0.0584 255 0 0
4.5649 3.8492 -0.0400 255 0 0
4.5649 3.8492 -0.0217 255 0 0
4.5649 3.8492 -0.0033 255 0 0
4.5649 3.8492 0.0150 255 0 0
4.5649 3.8492 0.0334 255 0 0
4.5649 3.8492 0.0518 255 0 0
4.5649 3.8492 0.0701 255 0 0
4.5649 3.8492 0.0885 255 0 0
4.5649 3.8492 0.1068 255 0 0
4.5649 3.8492 0.1252 255 0 0
4.5649 3.8492 0.1436 255 0 0
4.5649 3.8492 0.1619 255 0 0
4.5649 3.8492 0.1803 255 0 0
4.5649 3.8492 0.1986 255 0 0
4.5649 3.8492 0.2170 255 0 0
4.5649 3.8492 0.2354 255 0 0
4.5649 3.8492 0.2537 255 0 0
4.5649 3.8492 0.2721 255 0 0
4.5649 3.8492 0.2904 255 0 0
4.5649 3.8492 0.3088 255 0 0
4.5649 3.8492 0.3272 255 0 0
4.5649 3.8492 0.3455 255 0 0
4.5649 3.8492 0.3639 255 0 0
4.5649 3.8492 0.3822 255 0 0
4.5649 3.9685 -0.1502 255 0 0
4.5649 3.9685 -0.1318 255 0 0
4.5649 3.9685 -0.1135 255 0 0
4.5649 3.9685 -0.0951 255 0 0
4.5649 3.9685 -0.0768 255 0 0
4.5649 3.9685 -0.0584 255 0 0
4.5649 3.9685 -0.0400 255 0 0
4.5649 3.9685 -0.0217 255 0 0
4.5649 3.9685 -0.0033 255 0 0
4.5649 3.9685 0.0150 255 0 0
4.5649 3.9685 0.0334 255 0 0
4.5649 3.9685 0.0518 255 0 0
4.5649 3.9685 0.0701 255 0 0
4.5649 3.9685 0.0885 255 0 0
4.5649 3.9685 0.1068 255 0 0
4.5649 3.9685 0.1252 255 0 0
4.5649 3.9685 0.1436 255 0 0
4.5649 3.9685 0.1619 255 0 0
4.5649 3.9685 0.1803 255 0 0
4.5649 3.9685 0.1986 255 0 0
4.5649 3.9685 0.2170 255 0 0
4.5649 3.9685 0.2354 255 0 0
4.5649 3.9685 0.2537 255 0 0
4.5649 3.9685 0.2721 255 0 0
4.5649 3.9685 0.2904 255 0 0
4.5649 3.9685 0.3088 255 0 0
4.5649 3.9685 0.3272 255 0 0
4.5649 3.9685 0.3455 255 0 0
4.5649 3.9685 0.3639 255 0 0
4.5649 3.9685 0.3822 255 0 0
4.4090 3.9685 -0.1502 255 0 0
4.4090 3.9685 -0.1318 255 0 0
4.4090 3.9685 -0.1135 255 0 0
4.4090 3.9685 -0.0951 255 0 0
4.4090 3.9685 -0.0768 255 0 0
4.4090 3.9685 -0.0584 255 0 0
4.4090 3.9685 -0.0400 255 0 0
4.4090 3.9685 -0.0217 255 0 0
4.4090 3.9685 -0.0033 255 0 0
4.4090 3.9685 0.0150 255 0 0
4.4090 3.9685 0.0334 255 0 0
4.4090 3.9685 0.0518 255 0 0
4.4090 3.9685 0.0701 255 0 0
4.4090 3.9685 0.0885 255 0 0
4.4090 3.9685 0.1068 255 0 0
4.4090 3.9685 0.1252 255 0 0
4.4090 3.9685 0.1436 255 0 0
4.4090 3.9685 0.1619 255 0 0
4.4090 3.9685 0.1803 255 0 0
4.4090 3.9685 0.1986 255 0 0
4.4090 3.9685 0.2170 255 0 0
4.4090 3.9685 0.2354 255 0 0
4.4090 3.9685 0.2537 255 0 0
4.4090 3.9685 0.2721 255 0 0
4.4090 3.9685 0.2904 255 0 0
4.4090 3.9685 0.3088 255 0 0
4.4090 3.9685 0.3272 255 0 0
4.4090 3.9685 0.3455 255 0 0
4.4090 3.9685 0.3639 255 0 0
4.4090 3.9685 0.3822 255 0 0
-0.3401 -0.4736 0.3645 255 0 0
-0.3062 -0.4736 0.3645 255 0 0
-0.2724 -0.4736 0.3645 255 0 0
-0.2386 -0.4736 0.3645 255 0 0
-0.2047 -0.4736 0.3645 255 0 0
-0.1709 -0.4736 0.3645 255 0 0
-0.1371 -0.4736 0.3645 255 0 0
-0.1032 -0.4736 0.3645 255 0 0
-0.0694 -0.4736 0.3645 255 0 0
-0.0356 -0.4736 0.3645 255 0 0
-0.0017 -0.4736 0.3645 255 0 0
0.0321 -0.4736 0.3645 255 0 0
0.0660 -0.4736 0.3645 255 0 0
0.0998 -0.4736 0.3645 255 0 0
0.1336 -0.4736 0.3645 255 0 0
0.1675 -0.4736 0.3645 255 0 0
0.2013 -0.4736 0.3645 255 0 0
0.2351 -0.4736 0.3645 255 0 0
0.2690 -0.4736 0.3645 255 0 0
0.3028 -0.4736 0.3645 255 0 0
0.3366 -0.4736 0.3645 255 0 0
0.3705 -0.4736 0.3645 255 0 0
0.4043 -0.4736 0.3645 255 0 0
0.4382 -0.4736 0.3645 255 0 0
0.4720 -0.4736 0.3645 255 0 0
0.5058 -0.4736 0.3645 255 0 0
0.5397 -0.4736 0.3645 255 0 0
0.5735 -0.4736 0.3645 255 0 0
0.6073 -0.4736 0.3645 255 0 0
0.6412 -0.4736 0.3645 255 0 0
0.6412 -0.4736 0.3645 255 0 0
0.6412 -0.4504 0.3645 255 0 0
0.6412 -0.4272 0.3645 255 0 0
0.6412 -0.4039 0.3645 255 0 0
0.6412 -0.3807 0.3645 255 0 0
0.6412 -0.3574 0.3645 255 0 0
0.6412 -0.3342 0.3645 255 0 0
0.6412 -0.3109 0.3645 255 0 0
0.6412 -0.2877 0.3645 255 0 0
0.6412 -0.2645 0.3645 255 0 0
0.6412 -0.2412 0.3645 255 0 0
0.6412 -0.2180 0.3645 255 0 0
0.6412 -0.1947 0.3645 255 0 0
0.6412 -0.1715 0.3645 255 0 0
0.6412 -0.1482 0.3645 255 0 0
0.6412 -0.1250 0.3645 255 0 0
0.6412 -0.1017 0.3645 255 0 0
0.6412 -0.0785 0.3645 255 0 0
0.6412 -0.0553 0.3645 255 0 0
0.6412 -0.0320 0.3645 255 0 0
0.6412 -0.0088 0.3645 255 0 0
0.6412 0.0145 0.3645 255 0 0
0.6412 0.0377 0.3645 255 0 0
0.6412 0.0610 0.3645 255 0 0
0.6412 0.0842 0.3645 255 0 0
0.6412 0.1074 0.3645 255 0 0
0.6412 0.1307 0.3645 255 0 0
0.6412 0.1539 0.3645 255 0 0
0.6412 0.1772 0.3645 255 0 0
0.6412 0.2004 0.3645 255 0 0
0.6412 0.2004 0.3645 255 0 0
0.6073 0.2004 0.3645 255 0 0
0.5735 0.2004 0.3645 255 0 0
0.5397 0.2004 0.3645 255 0 0
0.5058 0.2004 0.3645 255 0 0
0.4720 0.2004 0.3645 255 0 0
0.4382 0.2004 0.3645 255 0 0
0.4043 0.2004 0.3645 255 0 0
0.3705 0.2004 0.3645 255 0 0
0.3366 0.2004 0.3645 255 0 0
0.3028 0.2004 0.3645 255 0 0
0.2690 0.2004 0.3645 255 0 0
0.2351 0.2004 0.3645 255 0 0
0.2013 0.2004 0.3645 255 0 0
0.1675 0.2004 0.3645 255 0 0
0.1336 0.2004 0.3645 255 0 0
0.0998 0.2004 0.3645 255 0 0
0.0660 0.2004 0.3645 255 0 0
0.0321 0.2004 0.3645 255 0 0
-0.0017 0.2004 0.3645 255 0 0
-0.0356 0.2004 0.3645 255 0 0
-0.0694 0.2004 0.3645 255 0 0
-0.1032 0.2004 0.3645 255 0 0
-0.1371 0.2004 0.3645 255 0 0
-0.1709 0.2004 0.3645 255 0 0
-0.2047 0.2004 0.3645 255 0 0
-0.2386 0.2004 0.3645 255 0 0
-0.2724 0.2004 0.3645 255 0 0
-0.3062 0.2004 0.3645 255 0 0
-0.3401 0.2004 0.3645 255 0 0
-0.3401 0.2004 0.3645 255 0 0
-0.3401 0.1772 0.3645 255 0 0
-0.3401 0.1539 0.3645 255 0 0
-0.3401 0.1307 0.3645 255 0 0
-0.3401 0.1074 0.3645 255 0 0
-0.3401 0.0842 0.3645 255 0 0
-0.3401 0.0610 0.3645 255 0 0
-0.3401 0.0377 0.3645 255 0 0
-0.3401 0.0145 0.3645 255 0 0
-0.3401 -0.0088 0.3645 255 0 0
-0.3401 -0.0320 0.3645 255 0 0
-0.3401 -0.0553 0.3645 255 0 0
-0.3401 -0.0785 0.3645 255 0 0
-0.3401 -0.1017 0.3645 255 0 0
-0.3401 -0.1250 0.3645 255 0 0
-0.3401 -0.1482 0.3645 255 0 0
-0.3401 -0.1715 0.3645 255 0 0
-0.3401 -0.1947 0.3645 255 0 0
-0.3401 -0.2180 0.3645 255 0 0
-0.3401 -0.2412 0.3645 255 0 0
-0.3401 -0.2645 0.3645 255 0 0
-0.3401 -0.2877 0.3645 255 0 0
-0.3401 -0.3109 0.3645 255 0 0
-0.3401 -0.3342 0.3645 255 0 0
-0.3401 -0.3574 0.3645 255 0 0
-0.3401 -0.3807 0.3645 255 0 0
-0.3401 -0.4039 0.3645 255 0 0
-0.3401 -0.4272 0.3645 255 0 0
-0.3401 -0.4504 0.3645 255 0 0
-0.3401 -0.4736 0.3645 255 0 0
-0.3401 -0.4736 1.1461 255 0 0
-0.3062 -0.4736 1.1461 255 0 0
-0.2724 -0.4736 1.1461 255 0 0
-0.2386 -0.4736 1.1461 255 0 0
-0.2047 -0.4736 1.1461 255 0 0
-0.1709 -0.4736 1.1461 255 0 0
-0.1371 -0.4736 1.1461 255 0 0
-0.1032 -0.4736 1.1461 255 0 0
-0.0694 -0.4736 1.1461 255 0 0
-0.0356 -0.4736 1.1461 255 0 0
-0.0017 -0.4736 1.1461 255 0 0
0.0321 -0.4736 1.1461 255 0 0
0.0660 -0.4736 1.1461 255 0 0
0.0998 -0.4736 1.1461 255 0 0
0.1336 -0.4736 1.1461 255 0 0
0.1675 -0.4736 1.1461 255 0 0
0.2013 -0.4736 1.1461 255 0 0
0.2351 -0.4736 1.1461 255 0 0
0.2690 -0.4736 1.1461 255 0 0
0.3028 -0.4736 1.1461 255 0 0
0.3366 -0.4736 1.1461 255 0 0
0.3705 -0.4736 1.1461 255 0 0
0.4043 -0.4736 1.1461 255 0 0
0.4382 -0.4736 1.1461 255 0 0
0.4720 -0.4736 1.1461 255 0 0
0.5058 -0.4736 1.1461 255 0 0
0.5397 -0.4736 1.1461 255 0 0
0.5735 -0.4736 1.1461 255 0 0
0.6073 -0.4736 1.1461 255 0 0
0.6412 -0.4736 1.1461 255 0 0
0.6412 -0.4736 1.1461 255 0 0
0.6412 -0.4504 1.1461 255 0 0
0.6412 -0.4272 1.1461 255 0 0
0.6412 -0.4039 1.1461 255 0 0
0.6412 -0.3807 1.1461 255 0 0
0.6412 -0.3574 1.1461 255 0 0
0.6412 -0.3342 1.1461 255 0 0
0.6412 -0.3109 1.1461 255 0 0
0.6412 -0.2877 1.1461 255 0 0
0.6412 -0.2645 1.1461 255 0 0
0.6412 -0.2412 1.1461 255 0 0
0.6412 -0.2180 1.1461 255 0 0
0.6412 -0.1947 1.1461 255 0 0
0.6412 -0.1715 1.1461 255 0 0
0.6412 -0.1482 1.1461 255 0 0
0.6412 -0.1250 1.1461 255 0 0
0.6412 -0.1017 1.1461 255 0 0
0.6412 -0.0785 1.1461 255 0 0
0.6412 -0.0553 1.1461 255 0 0
0.6412 -0.0320 1.1461 255 0 0
0.6412 -0.0088 1.1461 255 0 0
0.6412 0.0145 1.1461 255 0 0
0.6412 0.0377 1.1461 255 0 0
0.6412 0.0610 1.1461 255 0 0
0.6412 0.0842 1.1461 255 0 0
0.6412 0.1074 1.1461 255 0 0
0.6412 0.1307 1.1461 255 0 0
0.6412 0.1539 1.1461 255 0 0
0.6412 0.1772 1.1461 255 0 0
0.6412 0.2004 1.1461 255 0 0
0.6412 0.2004 1.1461 255 0 0
0.6073 0.2004 1.1461 255 0 0
0.5735 0.2004 1.1461 255 0 0
0.5397 0.2004 1.1461 255 0 0
0.5058 0.2004 1.1461 255 0 0
0.4720 0.2004 1.1461 255 0 0
0.4382 0.2004 1.1461 255 0 0
0.4043 0.2004 1.1461 255 0 0
0.3705 0.2004 1.1461 255 0 0
0.3366 0.2004 1.1461 255 0 0
0.3028 0.2004 1.1461 255 0 0
0.2690 0.2004 1.1461 255 0 0
0.2351 0.2004 1.1461 255 0 0
0.2013 0.2004 1.1461 255 0 0
0.1675 0.2004 1.1461 255 0 0
0.1336 0.2004 1.1461 255 0 0
0.0998 0.2004 1.1461 255 0 0
0.0660 0.2004 1.1461 255 0 0
0.0321 0.2004 1.1461 255 0 0
-0.0017 0.2004 1.1461 255 0 0
-0.0356 0.2004 1.1461 255 0 0
-0.0694 0.2004 1.1461 255 0 0
-0.1032 0.2004 1.1461 255 0 0
-0.1371 0.2004 1.1461 255 0 0
-0.1709 0.2004 1.1461 255 0 0
-0.2047 0.2004 1.1461 255 0 0
-0.2386 0.2004 1.1461 255 0 0
-0.2724 0.2004 1.1461 255 0 0
-0.3062 0.2004 1.1461 255 0 0
-0.3401 0.2004 1.1461 255 0 0
-0.3401 0.2004 1.1461 255 0 0
-0.3401 0.1772 1.1461 255 0 0
-0.3401 0.1539 1.1461 255 0 0
-0.3401 0.1307 1.1461 255 0 0
-0.3401 0.1074 1.1461 255 0 0
-0.3401 0.0842 1.1461 255 0 0
-0.3401 0.0610 1.1461 255 0 0
-0.3401 0.0377 1.1461 255 0 0
-0.3401 0.0145 1.1461 255 0 0
-0.3401 -0.0088 1.1461 255 0 0
-0.3401 -0.0320 1.1461 255 0 0
-0.3401 -0.0553 1.1461 255 0 0
-0.3401 -0.0785 1.1461 255 0 0
-0.3401 -0.1017 1.1461 255 0 0
-0.3401 -0.1250 1.1461 255 0 0
-0.3401 -0.1482 1.1461 255 0 0
-0.3401 -0.1715 1.1461 255 0 0
-0.3401 -0.1947 1.1461 255 0 0
-0.3401 -0.2180 1.1461 255 0 0
-0.3401 -0.2412 1.1461 255 0 0
-0.3401 -0.2645 1.1461 255 0 0
-0.3401 -0.2877 1.1461 255 0 0
-0.3401 -0.3109 1.1461 255 0 0
-0.3401 -0.3342 1.1461 255 0 0
-0.3401 -0.3574 1.1461 255 0 0
-0.3401 -0.3807 1.1461 255 0 0
-0.3401 -0.4039 1.1461 255 0 0
-0.3401 -0.4272 1.1461 255 0 0
-0.3401 -0.4504 1.1461 255 0 0
-0.3401 -0.4736 1.1461 255 0 0
-0.3401 -0.4736 0.3645 255 0 0
-0.3401 -0.4736 0.3915 255 0 0
-0.3401 -0.4736 0.4184 255 0 0
-0.3401 -0.4736 0.4454 255 0 0
-0.3401 -0.4736 0.4723 255 0 0
-0.3401 -0.4736 0.4993 255 0 0
-0.3401 -0.4736 0.5262 255 0 0
-0.3401 -0.4736 0.5532 255 0 0
-0.3401 -0.4736 0.5801 255 0 0
-0.3401 -0.4736 0.6071 255 0 0
-0.3401 -0.4736 0.6340 255 0 0
-0.3401 -0.4736 0.6610 255 0 0
-0.3401 -0.4736 0.6879 255 0 0
-0.3401 -0.4736 0.7149 255 0 0
-0.3401 -0.4736 0.7418 255 0 0
-0.3401 -0.4736 0.7688 255 0 0
-0.3401 -0.4736 0.7958 255 0 0
-0.3401 -0.4736 0.8227 255 0 0
-0.3401 -0.4736 0.8497 255 0 0
-0.3401 -0.4736 0.8766 255 0 0
-0.3401 -0.4736 0.9036 255 0 0
-0.3401 -0.4736 0.9305 255 0 0
-0.3401 -0.4736 0.9575 255 0 0
-0.3401 -0.4736 0.9844 255 0 0
-0.3401 -0.4736 1.0114 255 0 0
-0.3401 -0.4736 1.0383 255 0 0
-0.3401 -0.4736 1.0653 255 0 0
-0.3401 -0.4736 1.0922 255 0 0
-0.3401 -0.4736 1.1192 255 0 0
-0.3401 -0.4736 1.1461 255 0 0
0.6412 -0.4736 0.3645 255 0 0
0.6412 -0.4736 0.3915 255 0 0
0.6412 -0.4736 0.4184 255 0 0
0.6412 -0.4736 0.4454 255 0 0
0.6412 -0.4736 0.4723 255 0 0
0.6412 -0.4736 0.4993 255 0 0
0.6412 -0.4736 0.5262 255 0 0
0.6412 -0.4736 0.5532 255 0 0
0.6412 -0.4736 0.5801 255 0 0
0.6412 -0.4736 0.6071 255 0 0
0.6412 -0.4736 0.6340 255 0 0
0.6412 -0.4736 0.6610 255 0 0
0.6412 -0.4736 0.6879 255 0 0
0.6412 -0.4736 0.7149 255 0 0
0.6412 -0.4736 0.7418 255 0 0
0.6412 -0.4736 0.7688 255 0 0
0.6412 -0.4736 0.7958 255 0 0
0.6412 -0.4736 0.8227 255 0 0
0.6412 -0.4736 0.8497 255 0 0
0.6412 -0.4736 0.8766 255 0 0
0.6412 -0.4736 0.9036 255 0 0
0.6412 -0.4736 0.9305 255 0 0
0.6412 -0.4736 0.9575 255 0 0
0.6412 -0.4736 0.9844 255 0 0
0.6412 -0.4736 1.0114 255 0 0
0.6412 -0.4736 1.0383 255 0 0
0.6412 -0.4736 1.0653 255 0 0
0.6412 -0.4736 1.0922 255 0 0
0.6412 -0.4736 1.1192 255 0 0
0.6412 -0.4736 1.1461 255 0 0
0.6412 0.2004 0.3645 255 0 0
0.6412 0.2004 0.3915 255 0 0
0.6412 0.2004 0.4184 255 0 0
0.6412 0.2004 0.4454 255 0 0
0.6412 0.2004 0.4723 255 0 0
0.6412 0.2004 0.4993 255 0 0
0.6412 0.2004 0.5262 255 0 0
0.6412 0.2004 0.5532 255 0 0
0.6412 0.2004 0.5801 255 0 0
0.6412 0.2004 0.6071 255 0 0
0.6412 0.2004 0.6340 255 0 0
0.6412 0.2004 0.6610 255 0 0
0.6412 0.2004 0.6879 255 0 0
0.6412 0.2004 0.7149 255 0 0
0.6412 0.2004 0.7418 255 0 0
0.6412 0.2004 0.7688 255 0 0
0.6412 0.2004 0.7958 255 0 0
0.6412 0.2004 0.8227 255 0 0
0.6412 0.2004 0.8497 255 0 0
0.6412 0.2004 0.8766 255 0 0
0.6412 0.2004 0.9036 255 0 0
0.6412 0.2004 0.9305 255 0 0
0.6412 0.2004 0.9575 255 0 0
0.6412 0.2004 0.9844 255 0 0
0.6412 0.2004 1.0114 255 0 0
0.6412 0.2004 1.0383 255 0 0
0.6412 0.2004 1.0653 255 0 0
0.6412 0.2004 1.0922 255 0 0
0.6412 0.2004 1.1192 255 0 0
0.6412 0.2004 1.1461 255 0 0
-0.3401 0.2004 0.3645 255 0 0
-0.3401 0.2004 0.3915 255 0 0
-0.3401 0.2004 0.4184 255 0 0
-0.3401 0.2004 0.4454 255 0 0
-0.3401 0.2004 0.4723 255 0 0
-0.3401 0.2004 0.4993 255 0 0
-0.3401 0.2004 0.5262 255 0 0
-0.3401 0.2004 0.5532 255 0 0
-0.3401 0.2004 0.5801 255 0 0
-0.3401 0.2004 0.6071 255 0 0
-0.3401 0.2004 0.6340 255 0 0
-0.3401 0.2004 0.6610 255 0 0
-0.3401 0.2004 0.6879 255 0 0
-0.3401 0.2004 0.7149 255 0 0
-0.3401 0.2004 0.7418 255 0 0
-0.3401 0.2004 0.7688 255 0 0
-0.3401 0.2004 0.7958 255 0 0
-0.3401 0.2004 0.8227 255 0 0
-0.3401 0.2004 0.8497 255 0 0
-0.3401 0.2004 0.8766 255 0 0
-0.3401 0.2004 0.9036 255 0 0
-0.3401 0.2004 0.9305 255 0 0
-0.3401 0.2004 0.9575 255 0 0
-0.3401 0.2004 0.9844 255 0 0
-0.3401 0.2004 1.0114 255 0 0
-0.3401 0.2004 1.0383 255 0 0
-0.3401 0.2004 1.0653 255 0 0
-0.3401 0.2004 1.0922 255 0 0
-0.3401 0.2004 1.1192 255 0 0
-0.3401 0.2004 1.1461 255 0 0
1.6307 1.5026 0.5861 255 0 0
1.6348 1.5026 0.5861 255 0 0
1.6388 1.5026 0.5861 255 0 0
1.6428 1.5026 0.5861 255 0 0
1.6468 1.5026 0.5861 255 0 0
1.6508 1.5026 0.5861 255 0 0
1.6548 1.5026 0.5861 255 0 0
1.6588 1.5026 0.5861 255 0 0
1.6629 1.5026 0.5861 255 0 0
1.6669 1.5026 0.5861 255 0 0
1.6709 1.5026 0.5861 255 0 0
1.6749 1.5026 0.5861 255 0 0
1.6789 1.5026 0.5861 255 0 0
1.6829 1.5026 0.5861 255 0 0
1.6869 1.5026 0.5861 255 0 0
1.6910 1.5026 0.5861 255 0 0
1.6950 1.5026 0.5861 255 0 0
1.6990 1.5026 0.5861 255 0 0
1.7030 1.5026 0.5861 255 0 0
1.7070 1.5026 0.5861 255 0 0
1.7110 1.5026 0.5861 255 0 0
1.7150 1.5026 0.5861 255 0 0
1.7191 1.5026 0.5861 255 0 0
1.7231 1.5026 0.5861 255 0 0
1.7271 1.5026 0.5861 255 0 0
1.7311 1.5026 0.5861 255 0 0
1.7351 1.5026 0.5861 255 0 0
1.7391 1.5026 0.5861 255 0 0
1.7431 1.5026 0.5861 255 0 0
1.7472 1.5026 0.5861 255 0 0
1.7472 1.5026 0.5861 255 0 0
1.7472 1.5057 0.5861 255 0 0
1.7472 1.5088 0.5861 255 0 0
1.7472 1.5119 0.5861 255 0 0
1.7472 1.5150 0.5861 255 0 0
1.7472 1.5181 0.5861 255 0 0
1.7472 1.5213 0.5861 255 0 0
1.7472 1.5244 0.5861 255 0 0
1.7472 1.5275 0.5861 255 0 0
1.7472 1.5306 0.5861 255 0 0
1.7472 1.5337 0.5861 255 0 0
1.7472 1.5369 0.5861 255 0 0
1.7472 1.5400 0.5861 255 0 0
1.7472 1.5431 0.5861 255 0 0
1.7472 1.5462 0.5861 255 0 0
1.7472 1.5493 0.5861 255 0 0
1.7472 1.5524 0.5861 255 0 0
1.7472 1.5556 0.5861 255 0 0
1.7472 1.5587 0.5861 255 0 0
1.7472 1.5618 0.5861 255 0 0
1.7472 1.5649 0.5861 255 0 0
1.7472 1.5680 0.5861 255 0 0
1.7472 1.5712 0.5861 255 0 0
1.7472 1.5743 0.5861 255 0 0
1.7472 1.5774 0.5861 255 0 0
1.7472 1.5805 0.5861 255 0 0
1.7472 1.5836 0.5861 255 0 0
1.7472 1.5867 0.5861 255 0 0
1.7472 1.5899 0.5861 255 0 0
1.7472 1.5930 0.5861 255 0 0
1.7472 1.5930 0.5861 255 0 0
1.7431 1.5930 0.5861 255 0 0
1.7391 1.5930 0.5861 255 0 0
1.7351 1.5930 0.5861 255 0 0
1.7311 1.5930 0.5861 255 0 0
1.7271 1.5930 0.5861 255 0 0
1.7231 1.5930 0.5861 255 0 0
1.7191 1.5930 0.5861 255 0 0
1.7150 1.5930 0.5861 255 0 0
1.7110 1.5930 0.5861 255 0 0
1.7070 1.5930 0.5861 255 0 0
1.7030 1.5930 0.5861 255 0 0
1.6990 1.5930 0.5861 255 0 0
1.6950 1.5930 0.5861 255 0 0
1.6910 1.5930 0.5861 255 0 0
1.6869 1.5930 0.5861 255 0 0
1.6829 1.5930 0.5861 255 0 0
1.6789 1.5930 0.5861 255 0 0
1.6749 1.5930 0.5861 255 0 0
1.6709 1.5930 0.5861 255 0 0
1.6669 1.5930 0.5861 255 0 0
1.6629 1.5930 0.5861 255 0 0
1.6588 1.5930 0.5861 255 0 0
1.6548 1.5930 0.5861 255 0 0
1.6508 1.5930 0.5861 255 0 0
1.6468 1.5930 0.5861 255 0 0
1.6428 1.5930 0.5861 255 0 0
1.6388 1.5930 0.5861 255 0 0
1.6348 1.5930 0.5861 255 0 0
1.6307 1.5930 0.5861 255 0 0
1.6307 1.5930 0.5861 255 0 0
1.6307 1.5899 0.5861 255 0 0
1.6307 1.5867 0.5861 255 0 0
1.6307 1.5836 0.5861 255 0 0
1.6307 1.5805 0.5861 255 0 0
1.6307 1.5774 0.5861 255 0 0
1.6307 1.5743 0.5861 255 0 0
1.6307 1.5712 0.5861 255 0 0
1.6307 1.5680 0.5861 255 0 0
1.6307 1.5649 0.5861 255 0 0
1.6307 1.5618 0.5861 255 0 0
1.6307 1.5587 0.5861 255 0 0
1.6307 1.5556 0.5861 255 0 0
1.6307 1.5524 0.5861 255 0 0
1.6307 1.5493 0.5861 255 0 0
1.6307 1.5462 0.5861 255 0 0
1.6307 1.5431 0.5861 255 0 0
1.6307 1.5400 0.5861 255 0 0
1.6307 1.5369 0.5861 255 0 0
1.6307 1.5337 0.5861 255 0 0
1.6307 1.5306 0.5861 255 0 0
1.6307 1.5275 0.5861 255 0 0
1.6307 1.5244 0.5861 255 0 0
1.6307 1.5213 0.5861 255 0 0
1.6307 1.5181 0.5861 255 0 0
1.6307 1.5150 0.5861 255 0 0
1.6307 1.5119 0.5861 255 0 0
1.6307 1.5088 0.5861 255 0 0
1.6307 1.5057 0.5861 255 0 0
1.6307 1.5026 0.5861 255 0 0
1.6307 1.5026 0.6979 255 0 0
1.6348 1.5026 0.6979 255 0 0
1.6388 1.5026 0.6979 255 0 0
1.6428 1.5026 0.6979 255 0 0
1.6468 1.5026 0.6979 255 0 0
1.6508 1.5026 0.6979 255 0 0
1.6548 1.5026 0.6979 255 0 0
1.6588 1.5026 0.6979 255 0 0
1.6629 1.5026 0.6979 255 0 0
1.6669 1.5026 0.6979 255 0 0
1.6709 1.5026 0.6979 255 0 0
1.6749 1.5026 0.6979 255 0 0
1.6789 1.5026 0.6979 255 0 0
1.6829 1.5026 0.6979 255 0 0
1.6869 1.5026 0.6979 255 0 0
1.6910 1.5026 0.6979 255 0 0
1.6950 1.5026 0.6979 255 0 0
1.6990 1.5026 0.6979 255 0 0
1.7030 1.5026 0.6979 255 0 0
1.7070 1.5026 0.6979 255 0 0
1.7110 1.5026 0.6979 255 0 0
1.7150 1.5026 0.6979 255 0 0
1.7191 1.5026 0.6979 255 0 0
1.7231 1.5026 0.6979 255 0 0
1.7271 1.5026 0.6979 255 0 0
1.7311 1.5026 0.6979 255 0 0
1.7351 1.5026 0.6979 255 0 0
1.7391 1.5026 0.6979 255 0 0
1.7431 1.5026 0.6979 255 0 0
1.7472 1.5026 0.6979 255 0 0
1.7472 1.5026 0.6979 255 0 0
1.7472 1.5057 0.6979 255 0 0
1.7472 1.5088 0.6979 255 0 0
1.7472 1.5119 0.6979 255 0 0
1.7472 1.5150 0.6979 255 0 0
1.7472 1.5181 0.6979 255 0 0
1.7472 1.5213 0.6979 255 0 0
1.7472 1.5244 0.6979 255 0 0
1.7472 1.5275 0.6979 255 0 0
1.7472 1.5306 0.6979 255 0 0
1.7472 1.5337 0.6979 255 0 0
1.7472 1.5369 0.6979 255 0 0
1.7472 1.5400 0.6979 255 0 0
1.7472 1.5431 0.6979 255 0 0
1.7472 1.5462 0.6979 255 0 0
1.7472 1.5493 0.6979 255 0 0
1.7472 1.5524 0.6979 255 0 0
1.7472 1.5556 0.6979 255 0 0
1.7472 1.5587 0.6979 255 0 0
1.7472 1.5618 0.6979 255 0 0
1.7472 1.5649 0.6979 255 0 0
1.7472 1.5680 0.6979 255 0 0
1.7472 1.5712 0.6979 255 0 0
1.7472 1.5743 0.6979 255 0 0
1.7472 1.5774 0.6979 255 0 0
1.7472 1.5805 0.6979 255 0 0
1.7472 1.5836 0.6979 255 0 0
1.7472 1.5867 0.6979 255 0 0
1.7472 1.5899 0.6979 255 0 0
1.7472 1.5930 0.6979 255 0 0
1.7472 1.5930 0.6979 255 0 0
1.7431 1.5930 0.6979 255 0 0
1.7391 1.5930 0.6979 255 0 0
1.7351 1.5930 0.6979 255 0 0
1.7311 1.5930 0.6979 255 0 0
1.7271 1.5930 0.6979 255 0 0
1.7231 1.5930 0.6979 255 0 0
1.7191 1.5930 0.6979 255 0 0
1.7150 1.5930 0.6979 255 0 0
1.7110 1.5930 0.6979 255 0 0
1.7070 1.5930 0.6979 255 0 0
1.7030 1.5930 0.6979 255 0 0
1.6990 1.5930 0.6979 255 0 0
1.6950 1.5930 0.6979 255 0 0
1.6910 1.5930 0.6979 255 0 0
1.6869 1.5930 0.6979 255 0 0
1.6829 1.5930 0.6979 255 0 0
1.6789 1.5930 0.6979 255 0 0
1.6749 1.5930 0.6979 255 0 0
1.6709 1.5930 0.6979 255 0 0
1.6669 1.5930 0.6979 255 0 0
1.6629 1.5930 0.6979 255 0 0
1.6588 1.5930 0.6979 255 0 0
1.6548 1.5930 0.6979 255 0 0
1.6508 1.5930 0.6979 255 0 0
1.6468 1.5930 0.6979 255 0 0
1.6428 1.5930 0.6979 255 0 0
1.6388 1.5930 0.6979 255 0 0
1.6348 1.5930 0.6979 255 0 0
1.6307 1.5930 0.6979 255 0 0
1.6307 1.5930 0.6979 255 0 0
1.6307 1.5899 0.6979 255 0 0
1.6307 1.5867 0.6979 255 0 0
1.6307 1.5836 0.6979 255 0 0
1.6307 1.5805 0.6979 255 0 0
1.6307 1.5774 0.6979 255 0 0
1.6307 1.5743 0.6979 255 0 0
1.6307 1.5712 0.6979 255 0 0
1.6307 1.5680 0.6979 255 0 0
1.6307 1.5649 0.6979 255 0 0
1.6307 1.5618 0.6979 255 0 0
1.6307 1.5587 0.6979 255 0 0
1.6307 1.5556 0.6979 255 0 0
1.6307 1.5524 0.6979 255 0 0
1.6307 1.5493 0.6979 255 0 0
1.6307 1.5462 0.6979 255 0 0
1.6307 1.5431 0.6979 255 0 0
1.6307 1.5400 0.6979 255 0 0
1.6307 1.5369 0.6979 255 0 0
1.6307 1.5337 0.6979 255 0 0
1.6307 1.5306 0.6979 255 0 0
1.6307 1.5275 0.6979 255 0 0
1.6307 1.5244 0.6979 255 0 0
1.6307 1.5213 0.6979 255 0 0
1.6307 1.5181 0.6979 255 0 0
1.6307 1.5150 0.6979 255 0 0
1.6307 1.5119 0.6979 255 0 0
1.6307 1.5088 0.6979 255 0 0
1.6307 1.5057 0.6979 255 0 0
1.6307 1.5026 0.6979 255 0 0
1.6307 1.5026 0.5861 255 0 0
1.6307 1.5026 0.5899 255 0 0
1.6307 1.5026 0.5938 255 0 0
1.6307 1.5026 0.5976 255 0 0
1.6307 1.5026 0.6015 255 0 0
1.6307 1.5026 0.6054 255 0 0
1.6307 1.5026 0.6092 255 0 0
1.6307 1.5026 0.6131 255 0 0
1.6307 1.5026 0.6169 255 0 0
1.6307 1.5026 0.6208 255 0 0
1.6307 1.5026 0.6246 255 0 0
1.6307 1.5026 0.6285 255 0 0
1.6307 1.5026 0.6323 255 0 0
1.6307 1.5026 0.6362 255 0 0
1.6307 1.5026 0.6401 255 0 0
1.6307 1.5026 0.6439 255 0 0
1.6307 1.5026 0.6478 255 0 0
1.6307 1.5026 0.6516 255 0 0
1.6307 1.5026 0.6555 255 0 0
1.6307 1.5026 0.6593 255 0 0
1.6307 1.5026 0.6632 255 0 0
1.6307 1.5026 0.6670 255 0 0
1.6307 1.5026 0.6709 255 0 0
1.6307 1.5026 0.6748 255 0 0
1.6307 1.5026 0.6786 255 0 0
1.6307 1.5026 0.6825 255 0 0
1.6307 1.5026 0.6863 255 0 0
1.6307 1.5026 0.6902 255 0 0
1.6307 1.5026 0.6940 255 0 0
1.6307 1.5026 0.6979 255 0 0
1.7472 1.5026 0.5861 255 0 0
1.7472 1.5026 0.5899 255 0 0
1.7472 1.5026 0.5938 255 0 0
1.7472 1.5026 0.5976 255 0 0
1.7472 1.5026 0.6015 255 0 0
1.7472 1.5026 0.6054 255 0 0
1.7472 1.5026 0.6092 255 0 0
1.7472 1.5026 0.6131 255 0 0
1.7472 1.5026 0.6169 255 0 0
1.7472 1.5026 0.6208 255 0 0
1.7472 1.5026 0.6246 255 0 0
1.7472 1.5026 0.6285 255 0 0
1.7472 1.5026 0.6323 255 0 0
1.7472 1.5026 0.6362 255 0 0
1.7472 1.5026 0.6401 255 0 0
1.7472 1.5026 0.6439 255 0 0
1.7472 1.5026 0.6478 255 0 0
1.7472 1.5026 0.6516 255 0 0
1.7472 1.5026 0.6555 255 0 0
1.7472 1.5026 0.6593 255 0 0
1.7472 1.5026 0.6632 255 0 0
1.7472 1.5026 0.6670 255 0 0
1.7472 1.5026 0.6709 255 0 0
1.7472 1.5026 0.6748 255 0 0
1.7472 1.5026 0.6786 255 0 0
1.7472 1.5026 0.6825 255 0 0
1.7472 1.5026 0.6863 255 0 0
1.7472 1.5026 0.6902 255 0 0
1.7472 1.5026 0.6940 255 0 0
1.7472 1.5026 0.6979 255 0 0
1.7472 1.5930 0.5861 255 0 0
1.7472 1.5930 0.5899 255 0 0
1.7472 1.5930 0.5938 255 0 0
1.7472 1.5930 0.5976 255 0 0
1.7472 1.5930 0.6015 255 0 0
1.7472 1.5930 0.6054 255 0 0
1.7472 1.5930 0.6092 255 0 0
1.7472 1.5930 0.6131 255 0 0
1.7472 1.5930 0.6169 255 0 0
1.7472 1.5930 0.6208 255 0 0
1.7472 1.5930 0.6246 255 0 0
1.7472 1.5930 0.6285 255 0 0
1.7472 1.5930 0.6323 255 0 0
1.7472 1.5930 0.6362 255 0 0
1.7472 1.5930 0.6401 255 0 0
1.7472 1.5930 0.6439 255 0 0
1.7472 1.5930 0.6478 255 0 0
1.7472 1.5930 0.6516 255 0 0
1.7472 1.5930 0.6555 255 0 0
1.7472 1.5930 0.6593 255 0 0
1.7472 1.5930 0.6632 255 0 0
1.7472 1.5930 0.6670 255 0 0
1.7472 1.5930 0.6709 255 0 0
1.7472 1.5930 0.6748 255 0 0
1.7472 1.5930 0.6786 255 0 0
1.7472 1.5930 0.6825 255 0 0
1.7472 1.5930 0.6863 255 0 0
1.7472 1.5930 0.6902 255 0 0
1.7472 1.5930 0.6940 255 0 0
1.7472 1.5930 0.6979 255 0 0
1.6307 1.5930 0.5861 255 0 0
1.6307 1.5930 0.5899 255 0 0
1.6307 1.5930 0.5938 255 0 0
1.6307 1.5930 0.5976 255 0 0
1.6307 1.5930 0.6015 255 0 0
1.6307 1.5930 0.6054 255 0 0
1.6307 1.5930 0.6092 255 0 0
1.6307 1.5930 0.6131 255 0 0
1.6307 1.5930 0.6169 255 0 0
1.6307 1.5930 0.6208 255 0 0
1.6307 1.5930 0.6246 255 0 0
1.6307 1.5930 0.6285 255 0 0
1.6307 1.5930 0.6323 255 0 0
1.6307 1.5930 0.6362 255 0 0
1.6307 1.5930 0.6401 255 0 0
1.6307 1.5930 0.6439 255 0 0
1.6307 1.5930 0.6478 255 0 0
1.6307 1.5930 0.6516 255 0 0
1.6307 1.5930 0.6555 255 0 0
1.6307 1.5930 0.6593 255 0 0
1.6307 1.5930 0.6632 255 0 0
1.6307 1.5930 0.6670 255 0 0
1.6307 1.5930 0.6709 255 0 0
1.6307 1.5930 0.6748 255 0 0
1.6307 1.5930 0.6786 255 0 0
1.6307 1.5930 0.6825 255 0 0
1.6307 1.5930 0.6863 255 0 0
1.6307 1.5930 0.6902 255 0 0
1.6307 1.5930 0.6940 255 0 0
1.6307 1.5930 0.6979 255 0 0
1.6944 1.5921 0.6133 255 0 0
1.7275 1.5921 0.6133 255 0 0
1.7605 1.5921 0.6133 255 0 0
1.7936 1.5921 0.6133 255 0 0
1.8267 1.5921 0.6133 255 0 0
1.8597 1.5921 0.6133 255 0 0
1.8928 1.5921 0.6133 255 0 0
1.9259 1.5921 0.6133 255 0 0
1.9589 1.5921 0.6133 255 0 0
1.9920 1.5921 0.6133 255 0 0
2.0250 1.5921 0.6133 255 0 0
2.0581 1.5921 0.6133 255 0 0
2.0912 1.5921 0.6133 255 0 0
2.1242 1.5921 0.6133 255 0 0
2.1573 1.5921 0.6133 255 0 0
2.1904 1.5921 0.6133 255 0 0
2.2234 1.5921 0.6133 255 0 0
2.2565 1.5921 0.6133 255 0 0
2.2896 1.5921 0.6133 255 0 0
2.3226 1.5921 0.6133 255 0 0
2.3557 1.5921 0.6133 255 0 0
2.3888 1.5921 0.6133 255 0 0
2.4218 1.5921 0.6133 255 0 0
2.4549 1.5921 0.6133 255 0 0
2.4879 1.5921 0.6133 255 0 0
2.5210 1.5921 0.6133 255 0 0
2.5541 1.5921 0.6133 255 0 0
2.5871 1.5921 0.6133 255 0 0
2.6202 1.5921 0.6133 255 0 0
2.6533 1.5921 0.6133 255 0 0
2.6533 1.5921 0.6133 255 0 0
2.6533 1.6050 0.6133 255 0 0
2.6533 1.6179 0.6133 255 0 0
2.6533 1.6308 0.6133 255 0 0
2.6533 1.6437 0.6133 255 0 0
2.6533 1.6565 0.6133 255 0 0
2.6533 1.6694 0.6133 255 0 0
2.6533 1.6823 0.6133 255 0 0
2.6533 1.6952 0.6133 255 0 0
2.6533 1.7081 0.6133 255 0 0
2.6533 1.7210 0.6133 255 0 0
2.6533 1.7339 0.6133 255 0 0
2.6533 1.7467 0.6133 255 0 0
2.6533 1.7596 0.6133 255 0 0
2.6533 1.7725 0.6133 255 0 0
2.6533 1.7854 0.6133 255 0 0
2.6533 1.7983 0.6133 255 0 0
2.6533 1.8112 0.6133 255 0 0
2.6533 1.8241 0.6133 255 0 0
2.6533 1.8370 0.6133 255 0 0
2.6533 1.8498 0.6133 255 0 0
2.6533 1.8627 0.6133 255 0 0
2.6533 1.8756 0.6133 255 0 0
2.6533 1.8885 0.6133 255 0 0
2.6533 1.9014 0.6133 255 0 0
2.6533 1.9143 0.6133 255 0 0
2.6533 1.9272 0.6133 255 0 0
2.6533 1.9401 0.6133 255 0 0
2.6533 1.9529 0.6133 255 0 0
2.6533 1.9658 0.6133 255 0 0
2.6533 1.9658 0.6133 255 0 0
2.6202 1.9658 0.6133 255 0 0
2.5871 1.9658 0.6133 255 0 0
2.5541 1.9658 0.6133 255 0 0
2.5210 1.9658 0.6133 255 0 0
2.4879 1.9658 0.6133 255 0 0
2.4549 1.9658 0.6133 255 0 0
2.4218 1.9658 0.6133 255 0 0
2.3888 1.9658 0.6133 255 0 0
2.3557 1.9658 0.6133 255 0 0
2.3226 1.9658 0.6133 255 0 0
2.2896 1.9658 0.6133 255 0 0
2.2565 1.9658 0.6133 255 0 0
2.2234 1.9658 0.6133 255 0 0
2.1904 1.9658 0.6133 255 0 0
2.1573 1.9658 0.6133 255 0 0
2.1242 1.9658 0.6133 255 0 0
